-45.561455 68.809868 -29.845575 0.155764 -0.915162 -0.371775
-45.139442 68.747078 -29.557116 0.158256 -0.926015 -0.342713
-13.836064 -4.074021 11.251004 -0.570861 0.431352 0.698608
-3.117032 3.213025 38.187061 0.315303 -0.831845 -0.456748
29.022921 -17.378353 20.171572 -0.324742 -0.779203 -0.536084
-44.656391 68.817566 -29.568214 0.264448 -0.902619 -0.339627
-8.698007 68.821762 -29.745714 0.771789 -0.055259 0.633473
-8.877444 68.821373 -29.568327 0.683925 -0.093158 0.723580
8.891457 68.821243 -29.566477 0.991948 -0.003913 -0.126588
54.082207 68.821106 -29.567106 0.843850 0.170940 0.508622
62.066376 68.543083 -29.566299 0.753343 -0.647215 -0.116560
62.282795 68.810638 -29.568039 0.763213 -0.639523 -0.092277
-59.704617 68.962059 -29.563484 0.859362 -0.271408 0.433399
-59.595638 69.251923 -29.568066 0.862915 -0.346467 0.367884
-44.271389 68.954529 -29.572170 0.442217 -0.805649 -0.394175
29.480000 -17.370329 19.955730 -0.369352 -0.747709 -0.551825
-8.675073 69.249603 -29.742640 0.816477 -0.064590 0.573753
17.048122 -30.589479 27.031307 -0.579340 0.056214 0.813145
8.847157 69.248764 -29.565197 0.985595 0.109654 -0.128753
-11.529585 86.832497 17.603527 0.412675 -0.871649 -0.264438
62.506115 69.072449 -29.567129 0.767224 -0.641006 -0.021859
-41.268238 -22.516962 17.176683 0.917507 -0.010983 -0.397568
10.911337 -4.077221 11.599645 0.819787 0.562046 -0.109788
19.301714 -46.966248 10.322553 0.828168 -0.289834 0.479722
31.210587 -46.446941 7.734347 0.652627 0.712314 -0.258240
-43.682293 69.680794 -29.558920 0.909926 -0.157826 -0.383569
-8.687644 69.678970 -29.661839 0.823050 -0.098788 0.559312
-47.280186 -46.069344 7.738113 0.341900 -0.664969 0.664019
8.751936 69.678192 -29.566008 0.982223 0.133092 -0.132380
20.478693 -47.816387 30.392452 0.577793 0.121918 0.807026
62.927731 69.550781 -29.566696 0.808615 -0.571782 0.138589
34.195580 -4.478789 11.599586 0.974272 -0.096174 0.203826
-59.300945 69.831200 -29.569830 0.864375 -0.462078 0.198343
-59.146255 70.112679 -29.567423 0.860643 -0.491416 0.133430
-43.834881 70.110580 -29.854565 0.874993 0.198391 -0.441620
-43.713772 70.108444 -29.567999 0.911924 0.222816 -0.344598
-8.692472 70.021286 -29.571381 0.820408 -0.093468 0.564087
34.280590 -4.076052 11.597865 0.965716 -0.181967 0.185148
8.687805 70.107788 -29.567772 0.994882 0.002517 -0.101015
-39.600239 -3.649968 11.601060 0.885919 0.277455 -0.371707
53.857635 70.108055 -29.565556 0.853732 0.157545 0.496308
14.900184 25.939274 25.514631 0.854424 -0.239202 0.461240
63.353687 70.108635 -29.879499 0.925236 -0.340154 0.168028
63.257572 70.105881 -29.565479 0.908565 -0.347937 0.231190
-36.128334 -16.945236 19.915070 0.266345 -0.611071 -0.745421
-18.978327 40.736931 28.753302 -0.267602 -0.949791 0.162130
-43.923359 70.539719 -29.568991 0.794864 0.509850 -0.329005
-35.700958 -17.058496 20.176683 -0.235961 0.631021 0.739009
8.728816 70.534515 -29.567930 0.990467 -0.124393 -0.059169
53.920795 70.536224 -29.817348 0.847905 0.164583 0.503954
53.770950 70.535835 -29.568682 0.838434 0.175208 0.516072
63.355175 70.479698 -29.566990 0.956875 -0.175378 0.231588
-35.319901 -16.940538 20.178284 0.152490 -0.651188 -0.743438
-58.861885 70.609779 -29.566664 0.880432 -0.473521 -0.024835
-58.676949 70.970215 -29.564945 0.905898 -0.404020 -0.126950
-44.276714 70.930885 -29.566969 -0.611220 -0.736482 0.289834
-33.127541 -16.940197 20.091555 -0.099318 -0.567464 -0.817387
-13.396574 -3.651945 11.409249 -0.674665 0.364945 0.641594
-26.260523 -9.678266 17.463871 -0.157137 0.596418 -0.787142
-8.679356 70.812485 -29.563459 0.867232 0.160116 0.471457
8.851801 70.967270 -29.565418 0.986929 -0.131884 -0.092612
0.745934 3.143574 38.183426 0.429369 0.780999 0.453522
53.671761 70.965416 -29.566467 0.829454 0.197441 0.522517
63.384243 70.965675 -29.568226 0.983591 -0.034274 0.177128
-58.511993 71.391708 -29.568626 0.910659 -0.352664 -0.215239
10.610548 -3.649663 11.435442 0.855258 0.494094 -0.156222
14.772053 25.939663 25.750278 0.844977 -0.234291 0.480752
-45.126507 71.345024 -29.574051 -0.433295 -0.827645 0.356734
-44.708286 71.180984 -29.565195 -0.445022 -0.845703 0.294520
-8.923645 71.385551 -29.579115 0.876594 0.286948 0.386320
34.387272 -3.649687 11.600582 0.960524 -0.175284 0.216031
-32.698799 -16.939610 20.050934 -0.063831 -0.535945 -0.841836
-46.416191 -45.679558 7.614970 0.342811 -0.428054 0.836212
-39.981586 -3.218082 11.187818 0.873422 0.265183 -0.408426
-32.270100 -16.941181 20.043713 -0.033569 -0.477873 -0.877787
-39.786354 -3.221532 11.601520 0.897121 0.266860 -0.352078
-13.405098 -3.219381 11.263607 -0.592335 0.177521 0.785891
-58.351719 71.819939 -29.568518 0.867785 -0.377865 -0.322750
-13.041321 -3.218393 11.602860 0.760877 -0.275854 -0.587342
10.416123 -3.224080 11.601004 0.849968 0.501482 -0.161465
-45.554451 71.565239 -29.575693 -0.460772 -0.748630 0.476698
-9.087840 71.825691 -29.608679 0.913591 0.127135 0.386248
13.187271 84.122818 18.462427 -0.519284 -0.805611 -0.285193
22.186708 39.708515 18.889853 0.352018 -0.935856 -0.016043
8.898412 71.494507 -29.567167 0.979724 0.132640 -0.150158
8.807237 71.826111 -29.568712 0.909525 0.366095 -0.196820
-31.840967 -16.940195 20.039831 -0.072814 -0.441616 -0.894245
53.439651 71.822617 -29.567377 0.822617 0.253202 0.509107
9.324995 86.649384 17.603239 -0.431067 -0.901289 -0.043112
63.369743 71.822861 -29.566870 0.998431 0.026088 0.049545
-31.841238 -17.233315 20.178291 0.078741 0.475290 0.876299
-58.143608 72.248306 -29.569708 0.749377 -0.510292 -0.421943
-46.418812 72.255302 -29.592974 -0.514931 -0.729265 0.450576
-31.411165 -16.937963 19.993902 -0.140470 -0.462836 -0.875243
-45.996208 71.926140 -29.563053 -0.533014 -0.670156 0.516514
-31.413151 -17.283752 20.171644 0.106358 0.496902 0.861264
34.440098 -3.221014 11.601820 0.960054 -0.102482 0.260372
3.321950 72.252609 -29.936647 -0.110581 -0.432658 0.894751
-45.994015 -45.670803 7.490502 -0.229544 0.334699 -0.913940
-45.570568 -45.654438 7.427758 0.242515 -0.408135 0.880120
20.222971 69.245377 27.464125 0.778110 0.585212 0.228194
53.491787 72.251213 -29.881758 0.809913 0.278233 0.516361
53.295334 72.250969 -29.568165 0.825885 0.274586 0.492459
-39.997360 -2.793599 11.468813 0.878852 0.221822 -0.422391
63.383892 72.251945 -29.566727 0.996643 0.080321 0.015839
-15.543411 25.940599 27.018309 -0.656153 -0.314030 0.686184
-58.003986 72.686104 -29.777336 -0.541174 0.621821 0.566099
18.751429 -17.109440 20.184484 0.584062 -0.654671 -0.479872
-48.551144 72.727829 -30.002863 -0.237352 -0.844594 0.479921
13.577622 -22.512579 17.175158 0.928963 -0.365569 -0.058206
2.193498 -1.504608 40.760151 0.971502 0.105590 0.212214
-46.845169 72.554169 -29.571106 -0.420842 -0.826895 0.373010
20.309853 -47.388233 30.469337 0.507687 0.139937 0.850101
-9.108768 72.289284 -29.564398 0.880621 -0.240866 0.408031
5.897725 84.340485 24.894382 -0.239535 -0.966958 -0.087260
-12.983539 -2.788839 11.583072 -0.715616 0.190457 0.672027
2.895231 72.679604 -29.943237 0.221928 0.042465 -0.974138
3.324515 72.682678 -29.804003 -0.233828 -0.105064 0.966585
3.752156 72.683937 -29.682043 0.137785 0.240502 -0.960820
4.179252 72.680298 -29.649212 -0.007501 0.482547 -0.875838
-14.689806 64.534012 35.724743 -0.354407 0.312159 0.881449
5.036506 72.682793 -29.911074 0.191048 -0.870346 0.453871
7.609679 72.679947 -29.968342 -0.316086 -0.895562 0.313142
7.917241 72.686592 -29.568859 -0.430608 -0.849532 0.304748
-11.258882 86.962105 17.603676 0.395659 -0.885115 -0.245000
8.462666 72.324379 -29.564915 0.692855 0.671003 -0.264022
4.177550 9.644634 27.405098 0.878132 -0.170120 0.447151
-30.486881 -45.672295 7.732534 -0.578601 -0.062468 0.813215
63.347706 72.681053 -29.566729 0.972858 0.231087 0.012125
20.946627 -45.972031 7.761833 0.791114 -0.480249 0.378813
34.465702 -2.791554 11.602283 0.950223 -0.032020 0.309921
-57.141823 72.957184 -29.566658 0.395674 -0.842397 -0.365801
28.197090 -17.046465 20.180904 -0.337105 -0.854021 -0.396243
-40.011608 -2.362581 11.599737 0.880506 0.123082 -0.457778
-10.830364 87.151199 17.603806 0.385108 -0.897387 -0.215380
-48.557796 72.952301 -29.576675 -0.343469 -0.840792 0.418446
-48.138157 72.872719 -29.564310 -0.195983 -0.914349 0.354340
-47.710228 72.844856 -29.562540 -0.146074 -0.955268 0.257148
-47.283257 72.748871 -29.562326 -0.276501 -0.919047 0.280892
-8.684879 72.902206 -29.566521 0.618792 -0.663647 0.420321
-8.395186 73.110420 -29.567268 0.481354 -0.778552 0.402685
-13.403876 -2.362199 11.219972 -0.619176 0.134624 0.773626
3.319288 73.110580 -29.863466 -0.311576 0.146032 0.938933
3.749042 73.109589 -29.689131 -0.333905 0.030572 0.942111
14.861381 26.368330 25.750229 0.865259 -0.121986 0.486257
28.625792 -17.233627 20.181595 -0.320641 -0.828295 -0.459474
4.608114 72.802315 -29.567425 0.015779 0.628851 -0.777366
5.037107 72.858467 -29.555782 0.004020 -0.742133 0.670241
5.465726 72.916832 -29.567053 0.068020 -0.845698 0.529309
5.894368 72.968330 -29.568150 0.052920 -0.892890 0.447155
6.323391 73.005112 -29.565731 -0.006556 -0.941010 0.338314
6.751886 72.994972 -29.565584 -0.086879 -0.944937 0.315510
7.181017 72.935860 -29.566723 -0.192086 -0.929921 0.313607
7.610613 72.817017 -29.567537 -0.319337 -0.894581 0.312646
53.071232 73.111153 -29.654362 0.873770 0.223218 0.432087
1.167058 2.881837 38.177776 -0.572387 -0.694085 -0.436599
33.289062 -22.516514 17.173994 0.996335 0.066835 -0.053380
63.207409 73.108971 -29.566761 0.889856 0.455695 0.022298
-56.713303 73.176483 -29.566448 0.426365 -0.856394 -0.291207
-12.906263 -2.363729 11.594973 -0.654911 0.157021 0.739213
-56.288769 73.381363 -29.563540 0.381854 -0.888674 -0.253864
-14.256870 64.530495 35.896442 -0.357019 0.305780 0.882630
-34.843182 -16.513367 19.863750 0.106258 -0.586453 -0.802983
14.900553 -46.960587 30.214966 -0.512545 0.546969 0.661909
-49.418781 73.522942 -29.570726 -0.432776 -0.817723 0.379518
-34.842529 -16.875900 20.167095 0.066471 -0.635839 -0.768954
-48.990906 73.228386 -29.569880 -0.464294 -0.765002 0.446321
9.784965 -2.357120 11.598270 0.756016 0.630419 -0.176098
-7.827721 73.348618 -29.566881 0.297892 -0.872701 0.386851
29.909046 46.630222 10.316325 0.109996 -0.833906 0.540834
-5.686826 -4.643048 46.333477 0.857425 0.493299 0.146551
15.333218 -46.977215 30.459150 -0.377963 0.569862 0.729658
-6.538631 73.531219 -29.765009 0.229516 -0.761662 0.605964
-6.110249 73.532722 -29.878105 -0.186216 0.737029 -0.649702
3.752447 73.537346 -29.835190 -0.381452 0.170666 0.908497
4.168877 73.244888 -29.533842 0.325493 0.058698 -0.943721
-34.414391 -16.510057 19.911360 0.059014 -0.559882 -0.826468
21.235640 -45.616333 7.586742 0.876885 -0.373429 0.302694
53.062164 73.537674 -29.851795 0.899578 0.197875 0.389365
52.936543 73.538811 -29.565327 0.905210 0.161759 0.392975
0.679092 -4.508787 46.334629 0.939586 -0.330954 0.087449
62.916290 73.539497 -29.566675 0.807959 0.589234 0.002349
-55.427170 73.627174 -29.566730 0.175557 -0.981371 -0.078042
-54.999649 73.677849 -29.567394 0.151243 -0.987757 0.038225
-54.569408 73.756218 -29.567396 0.135662 -0.982500 0.127629
-54.139896 73.843704 -29.566420 0.054528 -0.979305 0.194906
-53.711487 73.841270 -29.565449 -0.069019 -0.964126 0.256314
-53.281353 73.765488 -29.570047 0.096570 0.970861 -0.219324
-52.854012 73.754150 -29.572218 0.027148 -0.984185 0.175050
-52.420929 73.843124 -29.560007 0.128786 -0.972093 0.196086
-51.993195 73.947479 -29.601181 0.123879 -0.961777 0.244213
20.471249 -46.961060 30.280201 0.558753 0.218462 0.800043
34.470417 -2.362318 11.601369 0.927258 0.046029 0.371583
-51.138084 73.969498 -29.632183 -0.065363 -0.943440 0.325036
-5.243706 84.896667 24.882679 0.463928 -0.781330 -0.417487
-50.709778 73.940331 -29.566124 -0.148323 -0.945409 0.290176
-50.281677 73.850487 -29.565468 -0.232051 -0.931190 0.281136
-49.855721 73.715660 -29.563471 -0.332125 -0.903410 0.271188
-6.967712 73.543541 -29.562454 0.261968 -0.788441 0.556536
28.624966 -45.656719 7.430775 -0.128530 -0.735599 0.665112
-6.111172 73.966110 -29.604683 -0.349120 0.266207 -0.898470
-5.705262 8.786648 29.182190 0.917256 0.016020 -0.397975
-5.702274 73.972549 -29.744892 0.332525 -0.239059 0.912292
-5.264001 73.972946 -29.897991 0.369793 -0.160788 0.915096
-33.985901 -16.518618 19.940342 -0.035895 -0.562175 -0.826239
4.184839 73.965630 -29.748953 -0.442867 0.116456 0.888992
-22.108072 69.678001 27.464844 0.696839 -0.412007 -0.587082
52.881653 73.967377 -29.565626 0.931547 0.103321 0.348632
-12.970281 -1.934877 11.505345 -0.615812 0.190238 0.764582
-33.555916 -16.508551 19.896585 -0.088429 -0.558588 -0.824718
15.337061 -46.545757 30.074835 -0.360985 0.620017 0.696612
-51.566475 74.009315 -29.562592 -0.041605 0.956424 -0.289002
-4.826198 -7.936346 57.308037 -0.137652 0.285039 0.948581
-6.099780 74.396629 -29.631647 0.392512 0.012246 0.919665
18.992809 75.694733 6.876359 0.802124 0.534069 -0.267145
-5.685113 74.395775 -29.788593 0.367811 0.034627 0.929256
-5.251299 74.395996 -29.973366 0.384115 0.037128 0.922538
3.747986 74.394646 -29.958818 -0.344717 -0.148877 0.926826
4.179952 74.396095 -29.776672 -0.402266 -0.091345 0.910955
8.038606 87.176666 17.603239 -0.331114 -0.943083 -0.030940
29.477873 -45.679504 7.534906 -0.209757 -0.817146 0.536912
-17.263079 26.796642 25.440502 0.809061 0.232576 -0.539749
52.858608 74.395264 -29.569733 0.948576 0.056584 0.311451
62.483624 74.031715 -29.564142 0.890214 0.431713 -0.145405
62.371529 74.399765 -29.574024 0.945290 0.168659 -0.279251
34.609131 -1.935914 11.274052 0.888196 0.111634 0.445697
15.750561 -46.519302 30.245636 -0.357630 0.614160 0.703497
-32.270432 -16.518047 19.854727 0.007433 -0.454699 -0.890614
-6.105477 74.826180 -29.755411 0.395560 0.070653 0.915718
-5.683805 74.824615 -29.916290 0.330019 0.055554 0.942338
3.322777 74.826546 -29.938063 0.236006 0.428781 -0.872037
3.752375 74.826820 -29.808563 0.292867 0.411029 -0.863298
-5.257142 85.120049 24.548786 0.519735 -0.659777 -0.542743
-31.842411 -16.519588 19.855387 0.090951 0.466767 0.879691
4.606534 74.571678 -29.563490 -0.411108 -0.133282 0.901791
52.850803 74.823669 -29.570278 0.934370 0.109088 0.339193
62.350609 74.825081 -29.569187 0.918890 0.026853 -0.393599
20.049295 69.453201 27.467230 0.767895 0.601202 0.221120
-6.603129 75.253555 -29.551872 0.411464 -0.124624 0.902865
-6.111584 75.253052 -29.764267 0.336025 -0.171220 0.926159
-5.682507 75.252907 -29.905632 0.297312 -0.212161 0.930910
-0.966435 75.253807 -29.992813 0.133758 0.568081 -0.812030
34.425369 -1.934188 11.598636 0.901438 0.133954 0.411662
-0.108432 75.256363 -29.847511 0.093834 0.634116 -0.767523
0.319659 75.248917 -29.819193 0.034792 0.632936 -0.773422
0.748782 75.252243 -29.819548 -0.012228 0.609876 -0.792402
1.177646 75.251884 -29.836069 -0.023931 0.573975 -0.818523
1.606385 75.252831 -29.847374 0.002584 0.561967 -0.827156
2.035380 75.255455 -29.846540 0.041448 0.570454 -0.820283
2.463878 75.252571 -29.821205 0.102283 0.592410 -0.799117
2.893301 75.255104 -29.750454 0.168333 0.618999 -0.767140
3.321748 75.253708 -29.638245 -0.207373 -0.640617 0.739329
3.577050 75.250298 -29.562937 -0.215518 -0.638104 0.739172
19.197485 -16.761967 20.162464 0.414721 -0.724143 -0.551021
4.179488 74.993896 -29.567295 0.279389 0.468511 -0.838117
52.801197 75.249695 -29.574396 0.899071 0.200524 0.389181
62.389832 75.253738 -29.568165 0.916580 0.068968 -0.393858
19.199600 -16.533886 19.796661 0.466054 -0.690708 -0.552916
29.961123 -45.698822 7.755024 -0.331277 -0.804595 0.492831
-6.172119 75.686440 -29.576155 -0.281120 0.428791 -0.858551
30.334669 -45.888863 7.743300 -0.396905 -0.793321 0.461637
-5.257516 75.687782 -29.836063 0.190622 -0.510582 0.838432
-40.080627 -1.505201 11.596298 0.864464 -0.028150 -0.501906
-4.397243 75.685219 -29.951927 0.034659 -0.584423 0.810708
19.610201 -16.654205 20.187746 0.321836 -0.731143 -0.601541
-3.539265 75.687241 -29.907021 0.022836 0.659684 -0.751196
-12.974052 -1.504601 11.395595 -0.613172 0.330971 0.717272
-2.681896 75.680443 -29.898254 0.025486 0.625933 -0.779460
-46.426434 -45.440300 7.730218 0.475937 -0.506574 0.718934
-1.823985 75.683159 -29.830301 0.108904 0.582993 -0.805145
-1.395594 75.681236 -29.762718 0.154857 0.594615 -0.788957
-0.966607 75.681961 -29.657410 0.187153 0.637273 -0.747567
-12.649443 -1.507390 11.593294 -0.535245 0.295723 0.791240
-0.537609 75.638573 -29.567095 -0.174248 -0.683216 0.709122
-0.107931 75.540108 -29.573528 -0.103232 -0.702863 0.703795
0.319927 75.515594 -29.565287 -0.006159 -0.707943 0.706243
-45.976589 -45.271854 7.593702 0.298887 -0.481869 0.823692
-2.681046 3.344096 38.184925 0.224995 -0.853411 -0.470177
1.606367 75.632187 -29.568827 -0.012820 0.623408 -0.781791
26.906498 -16.514160 20.060390 -0.273934 -0.878405 -0.391617
2.464202 75.553169 -29.567732 -0.142921 -0.656281 0.740857
2.892989 75.446388 -29.567392 -0.190034 -0.675459 0.712490
9.327448 -1.835533 11.599493 0.760523 0.640674 -0.105548
20.046831 -46.529194 30.374592 0.351735 0.368491 0.860521
19.847946 69.684784 27.468609 0.760636 0.600920 0.245618
52.650425 75.687134 -29.558123 0.811365 0.337408 0.477328
62.347626 75.682999 -29.567812 0.923203 0.180333 -0.339375
27.336988 -16.691139 20.178019 -0.303874 -0.869867 -0.388576
-5.683721 75.884697 -29.567606 0.207114 -0.529336 0.822744
27.758633 -16.843124 20.169937 -0.335352 -0.865765 -0.371470
22.622824 39.893688 18.889936 0.591088 -0.805113 0.049066
20.475279 -46.530308 30.132151 0.538181 0.331874 0.774740
3.417290 8.786629 29.179834 0.942392 0.010425 0.334349
34.331463 -1.505047 11.599522 0.893694 0.133762 0.428275
-3.968290 76.073059 -29.566179 0.066666 0.692389 -0.718438
-40.044498 -1.077352 11.595037 0.858829 -0.132479 -0.494835
-3.110661 76.027199 -29.569250 -0.018009 0.717385 -0.696444
20.047279 -16.086433 19.832209 -0.454647 0.474863 0.753526
16.179871 -46.091774 30.094522 0.377269 -0.596334 -0.708558
-1.824513 76.039375 -29.563927 -0.102962 -0.639695 0.761701
30.337526 46.715599 10.314898 0.109696 -0.830886 0.545523
-17.052479 26.798658 25.746618 0.792276 0.245482 -0.558603
52.633934 76.110214 -29.872690 0.777988 0.405891 0.479569
52.428474 76.105507 -29.573868 0.735716 0.436337 0.518008
62.201298 76.110977 -29.566662 0.921559 0.342344 -0.183109
-4.397153 76.125702 -29.565100 0.021774 0.656083 -0.754374
20.475012 -16.085546 20.161646 -0.429902 0.523852 0.735366
52.126049 76.538177 -29.568649 0.711936 0.488519 0.504476
-12.551518 -1.071320 11.495207 -0.579250 0.384501 0.718769
8.469287 87.024620 17.603317 -0.357859 -0.933292 -0.030041
62.002266 76.543457 -29.566929 0.919631 0.392577 -0.012767
-2.252637 3.425450 38.185696 0.179607 -0.861638 -0.474679
61.809044 76.970505 -29.566256 0.902803 0.415266 0.111809
51.546570 77.395081 -29.569042 0.813877 0.429345 0.391494
16.618145 -46.197529 30.458860 -0.305157 0.572623 0.760909
-1.825269 3.645792 37.955002 0.191050 -0.812054 -0.551424
18.330776 -46.100658 30.333477 -0.180938 -0.514660 -0.838085
61.623299 77.394081 -29.567877 0.886374 0.440546 0.142334
18.330580 -46.326706 30.469046 0.194180 0.485615 0.852333
51.338306 77.823486 -29.569345 0.871543 0.366886 0.325280
-5.944218 -4.077674 46.334126 0.944439 0.310815 0.106910
61.398945 77.822876 -29.567774 0.845434 0.514832 0.142089
51.170128 78.254852 -29.567091 0.913923 0.301476 0.271765
61.212563 78.097580 -29.566666 0.809582 0.565750 0.156535
8.701596 -1.077080 11.599816 0.801681 0.596834 -0.033119
51.045967 78.683052 -29.567690 0.949758 0.224849 0.217720
24.763805 -16.081736 20.038061 -0.232518 -0.656702 -0.717410
30.766451 46.764580 10.317586 0.059834 -0.838525 0.541567
60.740601 78.688904 -29.564939 0.746165 0.623383 0.233733
50.966099 79.112358 -29.567329 0.976515 0.142487 0.161606
18.760010 -46.097599 30.265392 -0.092026 -0.502581 -0.859618
50.920322 79.541512 -29.566957 0.994207 0.058226 0.090341
24.346336 -16.077408 20.184771 0.241787 0.692452 0.679742
60.119331 79.533745 -29.569349 0.738568 0.636154 0.223215
25.193731 -16.077530 19.913321 0.204445 0.649875 0.732027
25.191389 -16.281002 20.176130 -0.146907 -0.809555 -0.568365
8.896789 -1.329563 11.599764 0.782389 0.621239 -0.043921
59.922447 79.745010 -29.567810 0.664096 0.715258 0.217676
59.647247 79.973877 -29.565981 -0.621407 -0.764004 -0.173643
50.924870 80.035454 -29.563564 0.998901 -0.031016 0.035126
50.949940 80.402657 -29.570192 0.997156 -0.062765 0.041706
-21.983484 70.111183 27.307549 0.700059 -0.462774 -0.543836
58.996181 80.404167 -29.567081 -0.726902 -0.682350 0.077543
-41.275410 -22.088232 17.159597 0.938842 -0.028797 -0.343142
51.003376 80.832268 -29.566168 0.990009 -0.065813 0.124699
25.620087 -16.320312 20.175707 -0.120023 -0.856029 -0.502800
58.691242 80.830345 -29.568352 0.854981 0.453960 -0.250853
51.039318 81.270676 -29.548059 0.974021 -0.075169 0.213616
-39.986313 -0.795184 11.598283 0.845832 -0.200481 -0.494343
-2.681756 57.671654 39.351166 0.012696 -0.199200 -0.979877
51.091034 81.660172 -29.592783 0.960047 -0.109777 0.257408
58.457371 81.674995 -29.559090 0.896592 0.365769 -0.249673
51.121460 82.064621 -29.493092 0.931866 -0.121956 0.341691
26.046923 -16.340593 20.170576 -0.157018 -0.891453 -0.425038
58.227104 82.110489 -29.565369 0.876851 0.455335 -0.154281
51.329929 82.515495 -30.021259 0.979179 -0.130265 0.155691
51.220222 82.547646 -29.558828 0.932213 -0.129759 0.337849
26.477156 -16.428648 20.174896 -0.220617 -0.888935 -0.401401
57.992470 82.547241 -29.566908 0.912401 0.407723 -0.035868
51.350597 82.970688 -29.761736 0.959638 -0.126399 0.251235
-45.559467 -45.257385 7.521184 -0.141573 0.483244 -0.863963
14.887311 26.796999 25.753725 0.865476 -0.005815 0.500916
19.187359 -46.105953 30.273813 -0.060983 -0.498660 -0.864650
22.871500 40.098515 18.887762 0.743255 -0.660913 0.103755
57.788265 83.153908 -29.566284 0.918313 0.390167 0.066859
57.677837 83.395844 -29.567568 0.891367 0.447388 0.072866
19.614920 -46.107845 30.266542 -0.153185 -0.502499 -0.850899
-13.860930 64.534927 36.048401 -0.381192 0.279226 0.881320
-12.168520 -0.648404 11.597795 0.653166 -0.334920 -0.679119
51.261787 84.285957 -29.622314 0.720630 0.205229 0.662248
20.472279 -15.653980 19.934475 -0.427536 0.323810 0.844014
56.921524 84.255821 -29.942684 -0.631408 -0.750983 0.193258
57.036732 84.262939 -29.567038 -0.675575 -0.735174 0.055841
57.351856 83.962151 -29.566776 0.762916 0.646434 -0.009007
51.417622 84.733299 -29.905388 0.532886 0.323821 0.781775
50.920933 84.715729 -29.583042 0.525639 0.517092 0.675514
8.894737 86.851448 17.603109 -0.406634 -0.912852 -0.036744
56.418629 84.688622 -29.566830 -0.536970 -0.839747 0.080550
8.470341 -0.753260 11.599709 0.819801 0.571708 -0.032804
20.047472 -46.098892 30.142609 0.336008 0.487838 0.805676
0.753914 -4.256539 46.334606 0.958137 -0.266880 0.103672
20.904360 -15.657363 20.102034 0.249473 -0.421395 -0.871888
-10.399855 85.119568 -29.560520 -0.245532 0.458015 0.854363
-45.153542 -45.176853 7.574770 0.158838 -0.651636 0.741715
50.214108 85.119392 -29.563995 -0.499668 -0.652197 -0.570062
-44.734657 -45.239380 7.415283 0.318633 -0.773381 0.548046
21.330618 -15.651154 20.164953 0.098281 -0.451774 -0.886702
34.341984 -0.647194 11.599408 0.933725 -0.106740 0.341707
-17.251589 27.228455 25.687897 0.805498 0.196329 -0.559132
40.586639 58.528923 6.881611 0.710305 0.332691 0.620309
-22.424809 40.522278 18.888224 0.769970 0.571085 -0.284619
-39.787472 -0.221795 11.592846 0.854144 -0.221442 -0.470533
55.636635 85.114204 -29.760925 -0.363948 -0.924468 -0.113582
1.392011 -1.934642 43.760033 0.927870 0.228599 0.294618
-12.123342 -0.213763 11.335940 0.759667 -0.455373 -0.464265
56.073452 84.901024 -29.567289 0.490852 0.870292 -0.040699
-10.828144 85.550079 -29.886333 0.000017 0.539984 0.841675
-11.254409 85.535278 -29.574289 -0.643660 -0.594791 -0.481587
21.760685 -15.648927 20.151457 -0.003561 -0.435841 -0.900017
-10.397161 85.541695 -29.758158 -0.335759 0.393849 0.855657
-10.129099 85.541588 -29.577023 -0.466318 0.276379 0.840334
50.065865 85.549232 -29.941980 -0.492071 -0.659447 -0.568327
49.760098 85.544472 -29.567286 0.680277 0.593948 0.429475
-11.968591 -0.223437 11.592014 0.736955 -0.369789 -0.565822
-18.817339 39.665718 24.889311 0.642841 0.554015 -0.528983
17.043552 -45.672260 30.242887 0.198137 -0.610254 -0.767027
19.622509 69.952873 27.468054 0.768272 0.576048 0.279152
53.340412 85.139923 -29.611988 -0.035992 0.997321 -0.063688
53.849022 85.194916 -29.602345 0.038305 -0.995663 -0.084781
54.341759 85.198257 -29.553656 0.008039 0.988883 0.148480
54.779255 85.213821 -29.568390 0.052302 0.983071 0.175599
55.207947 85.192589 -29.567455 -0.163195 -0.975531 -0.147329
31.998621 -46.965321 10.366906 0.672049 0.584345 -0.454852
17.472425 -45.677464 30.286972 -0.004937 -0.580933 -0.813937
-10.387802 85.967575 -29.914640 -0.519031 0.205020 0.829803
17.472303 -45.947090 30.463223 -0.023027 -0.538018 -0.842619
49.627632 85.968292 -29.946737 0.681390 0.595397 0.425689
49.435902 85.977600 -29.564512 0.809207 0.504594 0.300947
8.109290 -0.216764 11.599756 0.839361 0.543563 -0.003456
31.900703 -47.751728 7.379210 0.936185 0.348578 0.045285
52.451595 85.993889 -29.619461 0.775979 -0.037055 -0.629669
-11.851249 86.391891 -29.567209 0.795877 0.601498 0.069138
-11.675540 86.169868 -29.565962 0.804020 0.578861 0.135912
-10.396404 86.402359 -29.946217 -0.607526 0.043366 0.793115
17.900297 -45.677616 30.216881 -0.146997 -0.553360 -0.819869
17.901970 -46.091660 30.470329 -0.166779 -0.520024 -0.837711
18.331474 -45.669277 30.071692 -0.168588 -0.556539 -0.813537
49.223644 86.381363 -29.562920 0.889131 0.413629 0.195852
34.431465 -0.217207 11.596501 0.943279 -0.124011 0.307970
-0.537201 -4.937651 35.899254 0.200079 -0.881616 -0.427460
-12.181882 86.832535 -29.566856 0.795755 0.601916 -0.066865
22.189644 -15.759601 20.179386 -0.019094 -0.491788 -0.870506
-39.673645 0.210344 11.600041 0.909970 -0.120768 -0.396697
22.617668 -15.645696 20.131582 0.021148 -0.394083 -0.918832
49.051357 86.827507 -29.567215 0.946833 0.313439 0.072553
52.608273 86.834404 -29.575851 0.868828 -0.042941 -0.493248
-11.738305 0.187059 11.575166 0.727838 -0.477050 -0.492620
7.843217 0.212577 11.599866 0.843830 0.536294 0.018430
-10.399038 87.260498 -29.847263 -0.568248 -0.011597 0.822776
20.045650 -39.240425 30.112453 -0.031036 -0.525463 0.850250
48.914543 87.261612 -29.567257 0.985356 0.165390 -0.041465
20.473927 -39.249584 30.078196 -0.005090 -0.592210 0.805768
-30.471262 -45.245384 7.744236 -0.543675 -0.209010 0.812855
-12.794662 87.675995 -29.561550 0.758385 0.599232 -0.256461
-12.556399 87.371574 -29.563753 0.781318 0.586193 -0.214290
-10.403895 87.689262 -29.865505 -0.520743 0.014907 0.853583
23.047283 -15.704236 20.174950 -0.005181 -0.438197 -0.898864
-9.974689 87.689461 -29.612558 -0.581319 0.053577 0.811910
20.902924 -39.244957 30.069185 0.039031 0.654367 -0.755169
48.868176 87.689491 -29.570713 0.988184 -0.044142 -0.146780
52.550144 87.690742 -29.568558 0.911525 0.251727 -0.325201
-13.142155 88.122574 -29.569042 0.756920 0.575015 -0.310531
13.620209 53.379311 35.044216 0.501372 -0.306067 0.809289
21.298033 -45.235809 7.734097 0.679729 -0.534265 0.502523
7.178806 16.507843 28.456211 0.316045 -0.311714 0.896075
-9.852779 88.118080 -29.567200 -0.633208 -0.029891 0.773404
48.950336 88.119156 -29.565626 0.936611 -0.249363 -0.246127
52.402222 88.117073 -29.566195 0.885614 0.424922 -0.187429
34.486187 0.210296 11.599873 0.955492 -0.058938 0.289070
-39.670124 0.639010 11.602099 0.954672 0.008606 -0.297535
-9.970667 87.506432 17.602724 0.339379 -0.924687 -0.172555
-9.975855 88.545982 -29.622791 -0.637764 -0.144794 0.756500
23.478504 -15.648790 20.159300 -0.094934 -0.415219 -0.904754
49.138092 88.543266 -29.569855 0.841847 -0.413231 -0.347178
-6.055059 -1.933656 41.617092 0.994752 -0.098415 -0.027968
52.157497 88.541313 -29.566038 0.801572 0.597827 -0.009246
-5.801151 -3.649462 41.188198 0.905105 0.420780 0.061068
-13.826658 88.977310 -29.568466 0.734925 0.609726 -0.296849
-10.402100 88.975052 -29.851868 -0.547292 -0.211617 0.809747
-10.061397 88.977188 -29.570448 -0.661977 -0.267182 0.700286
4.169340 85.063553 24.878487 -0.441783 -0.672601 -0.593662
7.559543 0.637289 11.599740 0.830568 0.556857 0.008127
23.902258 -15.862791 20.166872 0.208248 0.548816 0.809589
49.413166 88.976212 -29.566309 0.681278 -0.569460 -0.459974
14.900683 27.225960 25.685556 0.860698 0.094665 0.500238
21.759708 -39.230854 30.111229 -0.069872 0.628978 -0.774277
51.747223 88.976562 -29.566565 -0.648885 -0.742193 -0.167625
34.484188 0.639171 11.599999 0.962312 0.035736 0.269591
-14.108406 89.394012 -29.561928 0.748441 0.593101 -0.296763
24.335941 -15.653240 19.954615 0.255078 0.344867 0.903328
-10.397426 89.406212 -29.679810 -0.601744 -0.343882 0.720867
-39.710033 1.068027 11.599249 0.972277 0.047391 -0.228979
49.635117 89.209167 -29.567917 0.536748 -0.680112 -0.499350
13.938963 25.939262 27.037603 0.780618 -0.188476 0.595913
-1.826268 3.496465 38.192356 0.190229 -0.839249 -0.509386
-5.785999 -1.503582 43.761387 0.944891 -0.323778 -0.048465
51.355564 89.244492 -29.561033 -0.469119 -0.828178 -0.306674
19.196995 -38.808914 30.132788 -0.458059 -0.186645 0.869106
-14.658034 89.857101 -29.911425 0.742990 0.603532 -0.289336
-14.428901 89.825600 -29.563177 0.748148 0.597591 -0.288375
26.052908 -45.421356 7.729214 0.235484 0.820262 -0.521266
-10.828064 89.834229 -29.783190 -0.533246 -0.380511 0.755553
26.477873 -45.449337 7.740759 -0.035879 0.843478 -0.535964
24.761568 -15.656929 19.845934 0.274013 0.324182 0.905441
7.610353 51.668156 37.274578 0.235948 -0.152762 0.959683
-22.847841 -22.112427 17.166500 0.800010 0.214867 0.560194
50.920776 89.431946 -29.566221 -0.251247 -0.883960 -0.394321
-14.741790 90.229767 -29.551733 0.723810 0.623402 -0.295751
19.617407 -38.811726 30.281010 0.244967 0.254213 -0.935610
-11.258028 90.262222 -29.851772 -0.500001 -0.376576 0.779865
-10.887884 90.264450 -29.570555 -0.583656 -0.435774 0.685162
20.906233 -15.230521 19.965525 -0.225714 0.212457 0.950745
-15.191251 90.691437 -29.566933 0.716959 0.647096 -0.259299
21.331244 -15.226334 20.036982 0.105918 -0.170719 -0.979610
-9.445052 87.687340 17.602882 0.334670 -0.927692 -0.165477
21.760864 -15.227202 20.044016 0.033054 -0.191166 -0.981001
20.046535 -38.810326 30.330553 0.134445 0.330161 -0.934301
20.471392 -38.817554 30.373999 0.121438 0.422766 -0.898066
-6.049420 -3.647528 46.334831 0.985150 0.155928 0.071869
-11.687003 91.119728 -29.697641 -0.552239 -0.422693 0.718584
34.446747 1.067949 11.599785 0.960724 0.099257 0.259148
-11.256686 90.755653 -29.568508 -0.581659 -0.438530 0.685102
22.189896 -15.228378 20.043816 0.020823 -0.162115 -0.986552
-15.909531 91.538132 -29.564493 0.729340 0.669085 -0.142790
-12.116741 91.547821 -29.779009 -0.532180 -0.436397 0.725495
-11.858201 91.547737 -29.565527 -0.580143 -0.461363 0.671251
22.618399 -15.226379 20.058680 0.017898 -0.143106 -0.989545
23.047283 -15.227200 20.087839 -0.010408 -0.102625 -0.994666
-39.735786 1.496808 11.600469 0.977422 -0.009592 -0.211077
-10.824759 1.139423 11.596542 0.564449 -0.724511 -0.395577
-12.541965 91.979843 -29.806799 -0.500560 -0.461914 0.732171
-10.399941 1.380754 11.599212 0.412568 -0.821211 -0.394208
5.039629 87.634285 17.604610 0.164082 0.983588 0.075046
-16.830017 92.409309 -29.715864 -0.669447 -0.733949 0.114713
23.475187 -15.228712 20.059471 -0.095106 -0.175272 -0.979916
-16.415812 92.065147 -29.565020 -0.685510 -0.720016 0.107947
-12.974903 92.404770 -29.814365 -0.484387 -0.473862 0.735407
23.906502 -15.225410 19.993469 0.196362 0.175582 0.964683
24.331961 -15.228235 19.901003 0.242988 0.148777 0.958552
-17.290302 92.830215 -29.566872 -0.618555 -0.785530 -0.018217
20.903637 -38.818565 30.464561 0.108589 0.477544 -0.871872
-17.296421 27.654547 25.752131 0.815281 0.045185 -0.577300
-13.402641 92.834633 -29.811655 -0.482429 -0.493130 0.723938
6.962201 1.496543 11.599786 0.812101 0.583222 0.018546
-12.972536 92.746605 -29.567984 -0.501270 -0.506476 0.701577
-17.909927 93.259331 -29.567383 -0.528029 -0.840831 -0.119119
-2.681787 66.249611 38.687130 0.001975 -0.286985 -0.957933
-13.829150 93.265701 -29.800671 -0.497809 -0.497780 0.710213
20.472441 -14.797978 19.786116 -0.324555 0.059653 0.943984
-6.270507 -6.222996 55.337185 0.863073 -0.229415 -0.449971
7.180417 1.197694 11.599778 0.817953 0.575176 0.011201
-18.542768 93.616646 -29.564341 -0.465740 -0.860467 -0.206600
-18.126324 93.383026 -29.569263 -0.502477 -0.851052 -0.152405
-14.260214 93.692345 -29.801130 -0.500752 -0.486133 0.716186
20.902298 -14.798008 19.915920 -0.231922 0.083758 0.969122
34.385506 1.497061 11.600349 0.961410 0.129963 0.242488
-19.404247 94.124756 -29.894096 -0.403307 -0.879529 -0.252532
21.331779 -14.798125 19.984699 -0.121572 0.078925 0.989440
-19.403078 94.026215 -29.564789 -0.363575 -0.880222 -0.304996
-18.983015 93.841759 -29.570522 -0.417261 -0.872323 -0.254844
-14.686752 94.123283 -29.817844 -0.507098 -0.471500 0.721484
-39.708027 1.925961 11.600716 0.974089 -0.085853 -0.209237
-14.258981 94.015282 -29.567970 -0.520005 -0.487590 0.701321
-9.972065 1.571182 11.600183 0.381032 -0.828283 -0.410806
21.761036 -14.798499 20.017859 0.059578 -0.054872 -0.996714
-20.688429 94.430618 -29.560169 0.247737 0.865195 0.435962
-20.261786 94.311516 -29.564533 -0.271591 -0.874615 -0.401604
-19.834398 94.184990 -29.566639 -0.303406 -0.884382 -0.354702
-15.117035 94.550774 -29.837055 -0.500516 -0.476888 0.722539
0.870516 -3.649510 46.334644 0.980444 -0.104631 0.166681
-14.690394 94.490692 -29.564445 -0.521507 -0.491696 0.697327
-22.421484 94.967064 -29.775763 0.558567 0.703145 0.439988
-9.544257 1.757911 11.601172 0.406988 -0.822093 -0.398150
27.763960 -45.258606 7.551346 0.020741 0.677142 -0.735560
-21.998129 94.719048 -29.585684 -0.385534 -0.816683 -0.429410
28.191650 -45.249969 7.604526 -0.148810 -0.643794 0.750589
21.762936 -38.807796 30.458281 -0.157946 0.463409 -0.871955
-15.545161 94.980331 -29.848967 -0.488564 -0.515633 0.703866
22.189699 -14.798358 20.031466 -0.037645 0.036170 0.998636
-15.119968 94.944115 -29.563423 -0.507665 -0.547332 0.665360
-22.709843 95.402496 -29.570818 0.992853 -0.116343 -0.026589
-15.975282 95.407761 -29.823967 -0.477799 -0.584121 0.656133
-15.628025 95.405289 -29.564144 -0.491637 -0.618908 0.612574
22.618332 -14.798165 20.052589 0.017075 -0.019682 -0.999660
28.520805 -45.243027 7.739186 -0.240246 -0.719941 0.651128
-8.209487 49.952526 37.762421 -0.235995 -0.137946 0.961913
-2.253086 57.670963 39.348724 -0.029030 -0.216252 -0.975906
-15.974905 95.659927 -29.567047 -0.475210 -0.669012 0.571488
-22.426043 96.023613 -29.564718 0.798204 -0.588776 -0.127326
-2.253181 66.246170 38.683403 -0.022543 -0.287238 -0.957594
29.052925 -45.469204 7.734472 -0.219364 -0.776989 0.590058
23.046806 -14.798948 20.062634 0.032825 0.042008 0.998578
-16.833792 96.213478 -29.565601 -0.419597 -0.762132 0.493044
-16.403898 95.947060 -29.566828 -0.454366 -0.713983 0.532710
-21.978096 96.403053 -29.566803 0.591492 -0.802684 -0.076390
-21.558022 96.636810 -29.567312 0.443141 -0.895268 0.046059
8.896348 14.361438 26.800106 -0.019758 0.009380 -0.999761
6.660732 1.928662 11.599987 0.743975 0.666871 0.042248
22.193768 -38.818424 30.294041 -0.189619 0.410748 -0.891813
-18.546688 96.701126 -29.789154 -0.176023 -0.883380 0.434346
23.476515 -14.798173 20.034067 -0.108571 -0.054094 -0.992616
-18.042065 96.694168 -29.566658 -0.224698 -0.886805 0.403842
-17.691650 96.597855 -29.565031 -0.283225 -0.857148 0.430210
-17.263086 96.433006 -29.564856 -0.356574 -0.813582 0.459282
-21.122301 96.818657 -29.567570 0.293484 -0.941106 0.167889
-20.691730 96.919815 -29.566273 0.158336 -0.957899 0.239497
-20.263615 96.947472 -29.568380 0.046323 -0.961869 0.269559
-19.834539 96.940697 -29.566454 -0.029667 -0.956411 0.290511
-19.405727 96.912590 -29.566607 0.082797 0.947503 -0.308842
-18.976931 96.856735 -29.566610 -0.129041 -0.936574 0.325850
-10.398844 16.935360 28.487411 -0.353759 -0.218261 0.909514
22.620241 -38.815117 30.227936 -0.145575 0.327531 -0.933558
-15.973003 26.369221 26.876345 0.692768 0.337885 -0.637108
34.320847 1.926070 11.600527 0.964194 0.146112 0.221316
-0.964591 51.595787 -29.141020 -0.220836 -0.924968 0.309298
-0.538176 51.527328 -29.135756 -0.081708 -0.947040 0.310548
-0.108309 51.529324 -29.134710 0.055521 -0.955153 0.290863
0.319329 51.587349 -29.139057 0.157458 -0.947518 0.278237
23.905216 -14.798235 19.961599 0.183464 0.060326 0.981174
24.333349 -14.798417 19.874636 0.239000 0.063074 0.968969
1.176495 51.674473 -29.494545 0.175055 -0.924719 0.338009
19.193995 70.539566 27.443602 0.757215 0.395940 0.519478
-39.653076 2.354547 11.600002 0.965816 -0.148072 -0.212779
-2.101808 52.080990 -29.130873 -0.323465 -0.869332 0.373675
-1.835269 51.973106 -29.125414 -0.350265 -0.863253 0.363467
-1.405518 51.761154 -29.126520 -0.328470 -0.876942 0.350828
0.750044 51.695396 -29.136028 0.217601 -0.926869 0.305882
1.180349 51.823730 -29.133888 0.238881 -0.899233 0.366492
1.607778 51.937374 -29.135342 -0.232564 0.865597 -0.443460
5.537470 87.673340 17.602596 0.021437 -0.998525 -0.049873
-3.114406 -5.368599 55.897800 0.369974 0.437562 0.819548
20.905165 -14.369830 19.905933 -0.231661 0.034970 0.972168
-8.685460 2.310556 11.599918 0.594552 -0.728046 -0.341259
21.331232 -14.369362 19.981176 -0.142023 0.024508 0.989560
-3.103891 52.433563 -29.144783 -0.380819 -0.855395 0.351107
-2.690634 52.269726 -29.128561 -0.342612 -0.866268 0.363588
21.761242 -14.369559 20.020292 -0.078987 0.008130 0.996842
2.462290 52.148499 -29.141211 0.279428 -0.784310 0.553876
2.891405 52.337795 -29.140352 0.341662 -0.745869 0.571793
23.044832 -38.808891 30.203741 0.197539 -0.310651 0.929771
3.750753 52.525772 -29.504143 0.554163 -0.742629 0.376040
22.189669 -14.369508 20.042269 -0.048720 -0.006056 0.998794
22.618448 -14.369535 20.059185 -0.010332 -0.007685 0.999917
23.046690 -14.369555 20.059868 0.048493 0.003533 0.998817
-3.967653 52.775032 -29.138433 -0.389949 -0.861523 0.325142
-3.526585 52.604790 -29.151709 -0.358451 -0.855615 0.373412
3.761003 52.791111 -29.126936 0.495701 -0.709463 0.500941
-45.999413 -45.035973 7.726852 0.324685 -0.601906 0.729581
12.794811 -33.238049 18.889133 0.991214 0.088819 0.098007
12.756700 64.533371 35.835007 0.476038 0.152297 0.866137
23.476622 -14.369434 20.020439 0.124425 0.019343 0.992040
-52.850975 53.238701 -29.134335 -0.290210 -0.863100 -0.413325
-52.422791 53.084457 -29.134644 -0.212903 -0.867916 -0.448770
-51.996685 53.007149 -29.141035 -0.087691 -0.870516 -0.484264
23.904245 -14.369625 19.944818 0.190839 0.029244 0.981186
-8.687871 67.968246 37.231392 0.236971 -0.409522 -0.880986
-50.709099 53.146564 -29.139278 0.087374 -0.886325 -0.454745
6.320007 2.267943 11.599506 -0.583264 -0.809403 -0.068332
-50.280399 53.178402 -29.139196 -0.036339 0.927033 0.373214
-49.852383 53.175888 -29.134388 0.052297 -0.939569 -0.338343
-49.425472 53.201427 -29.131123 0.144189 -0.932007 -0.332525
-48.994591 53.291122 -29.137297 -0.262338 0.888881 0.375592
-45.558079 -44.886269 7.764123 0.138977 -0.742093 0.655731
24.334717 -14.369411 19.852102 0.246098 0.035174 0.968606
-4.859778 53.368523 -29.128839 -0.635440 -0.665340 0.391840
19.618635 -38.383263 30.296778 -0.288889 0.024809 0.957041
-4.406273 52.998013 -29.129877 -0.499504 -0.781295 0.374265
4.188488 53.123760 -29.133537 0.609525 -0.653185 0.449253
4.452045 53.378960 -29.136011 0.692889 -0.615367 0.375802
14.776619 27.654129 25.749010 0.848555 0.158316 0.504867
20.046989 -38.383110 30.387661 0.233484 0.040646 -0.971511
-54.573383 53.808407 -29.139574 -0.179273 -0.905654 -0.384255
20.414934 -38.384018 30.474804 -0.229806 -0.127169 0.964892
-54.140285 53.730324 -29.138500 -0.217833 -0.889878 -0.400832
-8.256507 2.696616 11.599834 0.625296 -0.701778 -0.341340
-53.713272 53.600849 -29.140888 -0.273287 -0.878543 -0.391760
-53.282475 53.428505 -29.138123 -0.313380 -0.862594 -0.397145
-48.562325 53.463631 -29.140913 0.390383 -0.816307 -0.425728
-48.128544 53.712143 -29.144680 0.569236 -0.629375 -0.529016
20.473906 -13.940608 19.774403 -0.333021 0.047875 0.941703
20.905729 -13.941145 19.902309 -0.238351 0.041995 0.970271
-5.268055 53.802303 -29.138243 0.730677 0.561264 -0.388709
-6.075811 -3.220199 46.334194 0.999325 0.005185 0.036379
4.622005 53.556019 -29.134951 0.732184 -0.585550 0.347906
4.804235 53.820358 -29.141068 0.825220 -0.534105 0.183693
21.331671 -13.940611 19.978319 -0.152162 0.031076 0.987867
6.753372 87.581917 17.603292 0.241383 0.970342 0.013093
-56.282894 54.160019 -29.137119 -0.304736 -0.929060 -0.209720
-55.856258 54.041195 -29.138849 -0.256064 -0.938850 -0.230201
-55.427460 53.942081 -29.139326 0.212069 0.935640 0.282142
7.181036 87.459259 17.603243 -0.284654 -0.958352 -0.023081
-47.736176 54.241623 -29.136181 0.858344 -0.238389 -0.454331
21.761091 -13.940725 20.024271 -0.095632 0.013497 0.995325
4.527325 2.781888 11.599789 -0.300781 -0.953662 0.007752
22.189573 -13.940691 20.055210 -0.058308 -0.002655 0.998295
5.024881 54.238461 -29.136757 0.902749 -0.430134 0.005386
-17.271864 28.082314 25.745001 0.807957 -0.116715 -0.577567
-57.139084 54.497181 -29.136635 -0.471594 -0.847637 -0.243128
-56.715279 54.309765 -29.139416 -0.370356 -0.902234 -0.220932
-47.707516 54.573772 -29.137997 0.937748 0.106639 -0.330540
22.150293 -38.384476 30.473465 0.260727 -0.222294 0.939472
22.621824 -38.386032 30.327829 0.216506 -0.174657 0.960531
-5.826770 54.660564 -29.131693 0.834430 0.427073 -0.348333
-5.691014 54.405632 -29.135263 0.803289 0.473778 -0.360916
23.043419 -38.381493 30.262598 0.224816 -0.126075 0.966211
23.473915 -38.382313 30.160114 0.329380 -0.134852 0.934518
5.228994 54.673489 -29.136679 0.892490 -0.411934 -0.183772
-57.880535 55.092609 -29.141077 0.697179 0.651646 0.298830
-57.568657 54.772758 -29.137072 -0.612173 -0.747165 -0.258822
5.037606 2.650329 11.599919 -0.231853 -0.971992 -0.038420
-47.874947 55.104198 -29.141939 0.904422 0.345422 -0.250410
22.618471 -13.940701 20.073929 -0.008980 -0.008783 0.999921
5.466098 2.568794 11.599903 -0.230659 -0.970010 -0.076657
5.400812 55.089771 -29.146280 0.864105 -0.397797 -0.308350
-57.993698 55.532059 -29.548836 0.714800 0.522575 0.464732
-58.208157 55.520870 -29.142317 0.686181 0.604493 0.404652
5.893981 2.467998 11.599640 -0.355857 -0.930917 -0.082211
23.047384 -13.940699 20.065100 0.060940 -0.007371 0.998114
34.200378 2.784120 11.472285 0.957247 0.222741 0.184567
-6.239614 55.526180 -29.137125 0.878504 0.431071 -0.205935
-6.110765 55.246830 -29.138390 0.875669 0.414572 -0.247658
-4.822662 85.292740 24.889936 0.559833 -0.628271 -0.540244
14.897226 28.083017 25.360262 0.868142 0.169843 0.466351
14.678293 28.084660 25.754585 0.860594 0.149980 0.486707
-58.428928 55.955944 -29.322821 0.644094 0.547845 0.533862
-58.610615 55.957806 -29.136929 -0.592354 -0.589498 -0.549190
21.335131 51.667526 28.666777 0.729853 -0.229529 0.643919
-48.163883 55.627350 -29.131186 0.872222 0.436999 -0.219684
-48.342518 55.963894 -29.142467 0.871292 0.416127 -0.260171
-6.460798 55.958984 -29.138559 0.882390 0.450391 -0.136144
5.762985 55.953041 -29.140419 0.852981 -0.399186 -0.336264
-58.865650 56.376389 -29.313761 -0.558672 -0.588648 -0.584276
-59.088093 56.384628 -29.138832 0.563380 0.573267 0.594952
-39.469616 3.210534 11.598587 0.921863 -0.306913 -0.236586
19.191744 -37.956017 30.038149 -0.471135 0.178605 0.863789
19.618687 -37.955544 30.202383 -0.324852 0.192822 0.925900
-6.698110 56.385044 -29.137896 0.890450 0.452000 -0.052862
-7.827433 3.080139 11.599699 0.631134 -0.698549 -0.337193
23.476730 -13.940683 20.015417 0.135603 0.001297 0.990762
23.905184 -13.940682 19.937731 0.195648 0.005543 0.980658
5.950015 56.381069 -29.140810 0.880464 -0.395136 -0.262013
-7.827824 3.212281 11.331151 0.622252 -0.698082 -0.354236
-59.480984 56.810928 -29.140844 0.626777 0.587687 0.511639
-44.695347 -44.970821 7.753351 0.062021 -0.843141 0.534104
-9.113199 87.815666 17.602863 0.350586 -0.923401 -0.156270
-48.744564 56.817665 -29.150671 0.820016 0.067458 -0.568351
-6.916264 56.820354 -29.136539 0.908851 0.415659 0.034888
6.113163 56.813942 -29.138218 0.921540 -0.303141 -0.242632
20.038004 -37.951664 30.339977 -0.293306 0.143748 0.945150
-59.877872 57.232773 -29.143867 0.699807 0.609086 0.373208
3.749231 3.078372 11.599834 -0.395960 -0.918095 0.017802
-48.981934 57.240223 -29.482332 0.799131 -0.040943 -0.599761
4.176006 2.908149 11.599993 -0.347467 -0.937308 0.026834
-6.978479 57.240047 -29.538239 0.890332 0.320336 0.323563
-7.093089 57.245125 -29.137367 0.924227 0.364973 0.112246
24.333233 -13.940708 19.841585 0.249912 0.009173 0.968225
6.222515 57.242550 -29.138693 0.942135 -0.195464 -0.272352
-60.234852 57.670696 -29.138578 0.773801 0.577550 0.260132
34.062584 3.211697 11.599568 0.933319 0.299259 0.198392
-39.299885 3.636171 11.596628 0.876578 -0.399360 -0.268557
-48.572910 57.677029 -29.292898 -0.584113 0.401646 0.705331
20.903139 -13.511848 19.874191 -0.250212 0.087428 0.964235
-7.240086 57.672310 -29.137812 0.931936 0.335919 0.136580
6.282442 57.670025 -29.143677 0.925567 -0.125448 -0.357194
-60.537849 58.100750 -29.137947 0.850394 0.462611 0.250641
21.331615 -13.511711 19.960745 -0.172221 0.066624 0.982803
-48.136669 58.100929 -29.323679 -0.476700 0.465394 0.745765
21.760586 -13.511765 20.014940 -0.114926 0.045992 0.992309
22.189621 -13.511851 20.055599 -0.070528 0.028637 0.997099
6.300316 58.101978 -29.132509 0.862942 -0.088927 -0.497416
-60.761372 58.537148 -29.132717 0.914898 0.341377 0.215461
22.618607 -13.511999 20.081347 -0.017042 0.015564 0.999734
23.047176 -13.511885 20.073896 0.060464 0.004591 0.998160
-47.702953 58.526470 -29.255737 -0.561134 0.373755 0.738537
-44.240337 -44.944618 7.702279 0.189878 -0.907343 0.375067
23.476097 -13.511871 20.019880 0.137853 0.000806 0.990452
-7.536293 58.530613 -29.137074 0.928076 0.295835 0.226176
0.888099 -3.220083 46.334869 0.977546 0.015108 0.210178
23.906191 -13.511873 19.942747 0.196172 -0.001977 0.980567
24.332314 -13.511878 19.846003 0.244590 -0.003254 0.969621
6.356162 58.529804 -29.137192 0.839171 -0.138765 -0.525867
-60.892872 58.965118 -29.131273 0.941644 0.252587 0.222502
-6.035641 -2.790853 46.333996 0.991892 -0.126359 0.013520
20.903625 -13.083242 19.820412 -0.270312 0.132662 0.953589
-7.666683 58.958000 -29.138475 0.925571 0.235826 0.296149
-4.822614 85.541618 24.680080 0.586072 -0.584946 -0.560676
6.417926 58.957642 -29.139036 0.858958 -0.260380 -0.440900
-7.398749 3.640815 11.243034 0.595797 -0.727478 -0.340297
21.332861 -13.083521 19.922501 -0.192525 0.107670 0.975367
-47.270840 59.381931 -29.325871 -0.627743 0.413888 0.659268
8.038945 51.668282 37.168659 0.211126 -0.148386 0.966130
-7.749759 59.385830 -29.141651 0.912266 0.137708 0.385754
6.517395 59.366337 -29.139849 0.846474 -0.351100 -0.400262
-61.006569 59.814327 -29.140499 0.909593 0.234813 0.342788
2.536601 3.632873 11.599674 -0.449585 -0.893023 -0.019564
3.752446 85.549004 24.769018 0.316650 0.635273 0.704386
-46.682533 59.819683 -29.132120 0.658402 -0.414415 -0.628305
21.761074 -13.083184 19.988001 0.136007 -0.085445 -0.987016
22.189011 -13.082548 20.033234 -0.087268 0.067554 0.993892
6.766750 59.818424 -29.138811 0.857391 -0.503460 0.106809
2.890852 3.468955 11.599722 -0.424867 -0.904947 -0.023658
-61.120369 60.240219 -29.144108 0.838351 0.305659 0.451375
22.318012 -37.954163 30.462841 0.288797 -0.060557 0.955473
22.623085 -37.955284 30.375002 0.253301 -0.042423 0.966457
-7.777446 60.245396 -29.144630 0.841775 -0.054496 0.537070
7.166640 60.259476 -29.264160 0.652036 -0.545831 0.526230
22.618786 -13.083530 20.066843 -0.031952 0.049554 0.998260
-46.424534 60.268539 -29.135408 0.745950 -0.331642 -0.577556
-46.419792 60.673260 -29.331198 0.753096 -0.237300 -0.613624
17.048563 -30.237099 26.996008 -0.536897 0.132510 0.833176
-30.993929 -44.825565 7.648291 -0.458288 -0.526576 0.716024
7.181699 60.452477 -29.137379 0.693438 -0.540808 0.476100
11.579858 -3.219882 17.602783 0.892047 0.288092 -0.348217
3.320811 3.265102 11.599797 -0.414589 -0.910007 -0.001429
8.029637 60.685680 -29.389912 0.449355 -0.591173 0.669772
-61.428383 61.103043 -29.377024 0.826385 0.331996 0.454825
-61.579536 61.100765 -29.140774 0.850678 0.274064 0.448593
23.047379 -13.083001 20.071415 0.047987 0.033360 0.998291
33.894753 3.640213 11.599423 0.913705 0.352905 0.201496
-46.181820 61.103912 -29.131914 0.819167 -0.127653 -0.559169
-7.581386 61.102970 -29.136415 0.876635 0.080854 0.474314
